ply
format ascii 1.0
element vertex 1262
property double x
property double y
property double z
property uchar diffuse_red
property uchar diffuse_green
property uchar diffuse_blue
end_header
-0.767023 -1.06025 3.32636 175 184 188
-0.677126 -0.744999 2.08229 208 215 218
-0.746243 -1.21736 3.31669 183 192 196
-0.751256 -1.17626 3.34253 175 184 187
-0.836271 0.107003 4.10779 209 216 219
-0.739229 -1.22581 3.30632 178 186 193
-0.754877 -1.06174 3.32245 173 184 188
-0.752252 -1.07363 3.31634 168 178 185
-0.744734 -1.11189 3.31439 172 183 187
-0.750493 -1.05924 3.31839 172 183 187
-0.733485 -1.16696 3.33774 172 181 184
-0.925296 0.495054 3.95978 211 217 222
-0.734346 -1.15251 3.33021 171 180 183
-0.818106 0.107834 4.10261 209 216 219
-0.74103 -1.08054 3.31432 161 172 176
-0.743842 -1.02967 3.32288 108 105 151
-0.742944 -0.956764 3.35118 168 179 183
-0.796368 -0.38202 3.67995 159 173 179
-0.726724 -1.01173 3.31923 56 57 78
-0.711816 -1.06076 3.31031 152 165 167
-0.747629 -0.807948 2.78321 163 174 178
-0.725479 -0.919076 3.35248 44 46 77
-0.700439 -1.11942 3.31248 158 170 170
-0.7119 -0.999127 3.32198 163 171 178
-0.72301 -0.897093 3.3606 64 68 93
-0.702684 -1.06498 3.30639 150 161 165
-0.704513 -1.00138 3.31143 122 126 137
-0.704513 -1.00138 3.31143 122 126 137
-0.693085 -1.09649 3.30805 154 166 168
-0.711521 -0.932483 3.33925 116 119 147
-0.714056 -0.900313 3.35529 49 51 81
-0.702469 -0.996627 3.31449 159 168 172
-0.699998 -1.0142 3.31061 51 52 80
-0.687724 -1.11802 3.31544 149 161 161
-0.600404 -0.652932 2.63334 212 219 222
-0.696961 -0.929991 3.33298 99 103 128
-0.69357 -0.951457 3.32389 153 164 168
-0.675659 -1.04941 3.30352 144 156 158
-0.683812 -0.968297 3.31586 154 162 169
-0.676539 -0.972547 3.30872 150 159 163
-0.666189 -0.995379 3.3041 65 72 81
-0.668496 -0.913688 3.3304 52 53 87
-0.650968 -0.969383 3.29866 140 149 152
-0.643998 -1.00219 3.29561 50 51 77
-0.648002 -0.957799 3.30037 140 149 152
-0.643202 -0.909366 3.31769 46 55 64
-0.635313 -0.95953 3.29761 138 148 148
-0.62668 -0.920479 3.3042 131 143 143
-0.621275 -0.858452 3.34621 146 157 161
-0.614361 -0.862057 3.33238 141 153 155
-0.591624 -0.915475 3.28967 48 49 47
-0.591624 -0.915475 3.28967 48 49 47
-0.637947 -0.233976 3.74285 157 171 177
-0.567321 -1.03072 3.28898 87 108 105
-0.580606 -0.892671 3.29912 83 84 80
-0.627481 -0.200811 3.74991 161 174 182
-0.558829 -1.06968 3.2897 165 214 216
-0.558032 -1.02791 3.28647 39 48 45
-0.57192 -0.882994 3.29862 48 49 45
-0.557891 -1.01437 3.28454 60 59 55
-0.538434 -1.15999 3.28556 48 45 40
-0.619273 -0.14548 3.73269 155 171 178
-0.5336 -1.1441 3.28799 40 40 34
-0.561075 -0.897848 3.28609 39 40 36
-0.529199 -1.15374 3.288 44 44 38
-0.548563 -0.987087 3.28271 49 48 44
-0.559068 -0.851689 3.31793 47 50 48
-0.552266 -0.858074 3.3101 38 41 39
-0.550432 -0.846655 3.3189 52 57 56
-0.513602 -1.04767 3.27328 120 184 138
-0.503619 -1.06863 3.26964 77 128 101
-0.498818 -1.06212 3.27079 38 82 46
-0.506748 -0.963178 3.26169 37 35 34
-0.508493 -0.947729 3.25795 29 31 31
-0.478674 -1.14267 3.26857 40 37 33
-0.5011 -0.95052 3.25662 35 36 34
-0.491254 -0.982806 3.25496 42 41 37
-0.495294 -0.93311 3.25366 248 253 252
-0.494987 -0.933768 3.25433 248 253 252
-0.477068 -1.07548 3.26075 132 128 69
-0.48121 -1.03776 3.25396 99 116 49
-0.451353 -1.20605 3.26628 33 34 32
-0.45591 -1.16253 3.2524 32 33 31
-0.45358 -1.07486 3.24932 164 149 56
-0.464235 -0.974293 3.23206 115 127 129
-0.468761 -0.900964 3.26909 164 173 187
-0.496171 -0.352865 3.63884 158 176 183
-0.432028 -1.15431 3.24892 89 171 218
-0.459538 -0.853453 3.28132 181 189 196
-0.444404 -0.987326 3.22679 120 108 44
-0.442917 -0.998294 3.2266 93 77 34
-0.424873 -1.13592 3.23958 59 82 128
-0.452214 -0.829289 3.28826 173 182 186
-0.435234 -0.966049 3.21884 142 125 52
-0.442101 -0.82345 3.29232 151 161 168
-0.433715 -0.851824 3.26962 135 148 156
-0.424268 -0.995607 3.21614 196 212 225
-0.430061 -0.814634 3.29164 82 90 97
-0.415115 -0.838824 3.26641 127 143 150
-0.320234 -1.35264 3.54147 172 188 204
-0.41958 -0.354084 3.61154 152 171 179
-0.403975 -0.841 3.26124 115 131 138
-0.395307 -0.824832 3.26785 114 126 136
-0.143176 -1.18025 4.72547 71 83 85
-0.341799 -1.15906 3.19744 79 82 96
-0.347836 -1.09648 3.19194 123 143 161
-0.364157 -0.873426 3.23206 236 244 243
-0.335339 -1.13571 3.19774 178 199 214
-0.109086 -1.3326 4.61968 88 104 120
-0.341089 -1.02543 3.17803 122 140 157
-0.640387 1.23627 2.82388 89 91 199
-0.338513 -1.0151 3.17342 84 103 118
-0.343506 -0.893732 3.22121 43 51 50
-0.340064 -0.975069 3.18261 120 132 156
-0.331696 -1.06494 3.17126 178 199 214
-0.411195 0.565398 3.78712 158 175 188
-0.316091 -1.15583 3.18172 68 71 86
-0.331641 -0.990786 3.17758 52 68 84
-0.749439 0.400871 1.48203 46 60 72
-0.57577 1.1947 2.92141 145 156 164
-0.309831 -1.04134 3.16734 86 104 121
-0.310654 -1.04072 3.1656 86 104 121
-0.302653 -1.05387 3.16159 103 121 138
-0.293867 -1.12046 3.16551 122 141 154
-0.302794 -1.04035 3.16371 92 110 127
-0.301088 -1.01975 3.16605 118 134 151
-0.251989 -1.0315 3.6697 142 160 177
-0.297254 -1.05595 3.15881 87 105 122
-0.0586841 -1.07672 4.65286 211 223 223
-0.291846 -1.02725 3.16318 111 130 145
-0.285428 -1.08362 3.15054 117 137 154
-0.281348 -1.09991 3.15088 114 134 151
-0.283947 -1.01497 3.16905 76 92 105
-0.273379 -1.12526 3.15172 59 75 88
-0.663331 0.438925 1.87096 102 118 131
-0.659925 0.444715 1.89128 94 110 126
-0.648246 0.464158 1.96003 108 127 142
-0.264234 -1.12604 3.1452 46 54 67
-0.263393 -1.11754 3.14909 134 151 164
-0.263703 -1.10663 3.14533 143 164 179
-0.632166 0.48986 2.05396 73 93 110
-0.606334 0.527704 2.21171 157 178 193
1.66206 -0.457218 8.47934 181 201 218
-0.234906 -1.10345 3.14153 148 167 182
-0.185933 0.0746138 3.93913 77 125 113
1.70386 -3.43051 9.67095 37 36 32
-0.250191 0.547503 3.34034 206 214 221
3.1989 -5.15049 16.2617 149 165 181
-0.238152 0.633176 3.28403 112 128 141
0.0719179 -1.5658 3.43547 112 126 144
-0.205891 0.801126 3.32072 120 132 144
-0.283702 -0.849035 2.45426 140 155 171
-0.177741 0.854348 3.31804 93 109 122
-0.0822068 0.820381 3.34974 203 203 209
-0.0561292 0.876629 3.24914 176 186 193
-0.0276765 0.847669 3.30147 57 63 70
0.241548 0.668048 3.47422 41 43 43
0.200582 0.812194 3.33122 42 42 42
0.265833 0.549856 3.40278 46 47 45
0.180557 -0.351776 2.92566 31 33 33
0.149467 -0.721559 2.7419 22 25 23
0.308187 0.729798 3.41528 42 43 41
0.695897 2.22967 4.59401 36 39 37
0.220071 1.56941 3.24401 34 36 36
42.5304 14.0687 86.2836 27 56 70
0.531343 0.579201 3.38267 27 53 60
0.536392 0.569063 3.37581 33 43 50
0.551132 0.560385 3.3641 69 74 77
0.487962 1.86471 3.45994 38 40 40
0.558818 0.553121 3.35922 31 36 39
0.48409 0.865467 3.21483 99 109 116
0.765499 0.537044 3.37517 22 23 21
-1.46118 2.08432 6.37196 163 177 183
-0.867022 -1.03016 3.71712 173 184 192
-0.938026 -0.819725 3.42938 168 182 188
-0.873886 -0.822331 3.40486 171 183 189
-0.755212 -1.10284 3.31761 171 183 189
-0.765588 -1.0609 3.33024 172 184 188
-0.76932 -1.02959 3.34 174 186 190
-0.760838 -1.06563 3.32573 174 186 190
-0.749714 -1.08519 3.31462 169 181 187
-0.766712 -0.997589 3.35016 178 190 194
-0.735502 -1.10459 3.31537 174 184 194
-0.765589 -0.983914 3.3547 176 188 194
-0.747676 -1.0436 3.32047 168 180 184
-0.753139 -0.985495 3.35465 174 186 192
-0.75956 -0.955534 3.36387 176 188 194
-0.728265 -1.08199 3.31311 167 179 185
-0.780994 -0.824244 3.41832 174 186 192
-0.760997 -0.896662 3.3905 174 189 192
-0.743186 -0.983695 3.33826 175 187 191
-0.718975 -1.0659 3.30974 167 179 183
-0.725889 -1.02243 3.31578 172 183 187
-0.715406 -1.05062 3.3086 165 177 181
-0.726414 -1.00275 3.3246 174 186 190
-0.730917 -0.927064 3.35109 179 191 195
-0.727948 -0.936068 3.34766 179 191 195
-0.696282 -0.984761 3.31502 179 191 195
-0.750305 -0.776663 3.29542 171 185 191
-0.658295 -1.02335 3.30152 172 184 188
-0.939395 0.412914 3.90367 44 40 35
-0.652997 -1.02287 3.30175 174 186 190
-0.639618 -1.01196 3.29936 178 190 194
-0.651518 -0.906768 3.32336 200 211 215
7.57178 1.86903 23.9241 164 180 187
-0.619187 -0.871529 3.32467 213 225 227
-0.602049 -0.9242 3.29294 210 221 219
-0.556611 -1.03963 3.28732 84 89 90
-0.523236 -1.1244 3.28335 31 30 26
-0.534377 -1.05172 3.28395 37 46 43
-0.540634 -1.01909 3.28365 197 207 207
-0.515261 -1.0745 3.27432 248 255 255
-0.525765 -0.97842 3.27603 179 187 194
-0.551038 -0.844964 3.31822 178 187 191
-0.592606 -0.741876 3.2833 147 164 173
-0.540195 -0.375383 3.65268 143 159 166
-0.496979 -1.0078 3.26285 130 146 158
-0.581501 -0.7403 3.28155 147 165 176
-0.578833 -0.102273 3.77141 146 158 164
-0.641303 -0.966586 2.96952 121 137 153
-0.522235 -0.86118 3.29149 137 148 156
-0.449278 -1.12475 3.24791 99 79 32
-0.44146 -1.11745 3.24876 94 77 34
-0.489584 -0.958314 3.24863 134 152 159
-0.454059 -1.05053 3.24554 195 207 217
-0.454059 -1.05053 3.24554 195 207 217
-0.467123 -1.0095 3.24382 109 125 137
-0.509538 1.9012 5.28827 122 140 147
-0.487231 -0.933273 3.25106 110 122 128
-0.42719 -1.1188 3.24008 178 197 212
-0.454 -1.0306 3.24066 173 192 207
-0.439203 -1.06475 3.23988 148 166 177
-0.439203 -1.06475 3.23988 148 166 177
-0.424021 -1.09304 3.23684 172 188 204
-0.425879 -1.08544 3.2348 190 206 222
-0.434134 -1.05817 3.23196 164 183 198
-0.438575 -0.970612 3.22429 236 248 250
-0.442823 -0.844704 3.2762 98 96 148
-0.425694 -0.299662 3.60875 194 207 209
-0.412414 -0.828365 3.2703 157 166 186
-0.405307 -0.840208 3.25907 126 218 231
-0.403837 -0.840401 3.2613 126 218 231
-0.330704 -1.07583 3.17451 208 229 244
-0.299181 -1.14517 3.16599 69 72 86
-0.3014 -1.13167 3.16913 81 87 98
-0.299338 -1.13252 3.17183 81 87 98
-0.321676 -1.05014 3.16915 187 210 226
-0.318201 -1.05041 3.16646 180 205 221
-0.313336 -1.04969 3.16834 176 201 217
0.00695787 -0.994372 3.76899 73 83 83
-0.280096 -1.13675 3.15959 75 81 94
-0.275749 -1.14447 3.15477 206 218 230
-0.283389 -1.09627 3.15241 67 76 90
-0.259475 -1.14698 3.14811 181 194 208
-0.248117 -1.14523 3.14165 184 197 211
0.105177 -1.46413 3.46222 53 61 74
-0.312014 0.483246 3.77243 142 162 179
-0.266987 0.525337 3.64371 120 134 153
-0.231809 0.489746 3.61027 156 169 185
-0.225559 0.492365 3.61948 156 169 185
0.354987 -1.17319 3.43502 85 97 109
-0.464618 0.920563 3.26963 255 224 166
-0.227803 0.771511 3.34948 50 55 58
1.39347 -0.594247 4.13765 33 36 34
0.252284 0.748122 3.42562 38 40 40
0.364548 0.669417 3.40235 40 45 43
0.143037 0.907736 3.21441 39 42 40
8.8782 8.76847 13.3776 19 33 45
0.32736 1.2967 3.26293 38 51 119
0.61786 0.60808 3.26354 41 42 40
0.630967 0.598983 3.26002 43 44 42
-2.10345 0.02788 4.2346 185 194 198
-1.28007 -1.56921 3.69046 185 194 198
-1.61489 -1.13955 3.6096 148 160 164
-2.18376 0.0991193 4.14879 178 189 193
-1.61476 -1.12664 3.61903 148 160 166
-2.02654 -0.979254 3.01995 144 157 165
-1.61481 -1.07083 3.68884 142 155 163
-2.17162 0.0937634 4.14972 182 191 195
-1.61677 -1.06544 3.68619 142 155 163
-1.95657 -0.127465 4.26484 186 195 199
-1.84277 -1.05699 3.25784 150 162 168
-2.30323 0.191574 4.0141 161 173 179
-1.95535 -0.109171 4.25382 191 200 204
-2.08885 0.0520036 4.19771 187 196 200
-2.30801 0.212234 3.98827 159 171 177
-2.23301 0.165521 4.0625 165 176 180
-2.22989 0.168251 4.05463 162 173 177
-2.21373 0.168368 4.05815 170 181 185
-1.90027 -0.115884 4.26344 186 195 199
-2.22178 0.174848 4.04256 164 175 179
-2.22884 0.192536 4.03561 165 176 180
-2.07572 0.0877123 4.17143 188 197 201
-2.20988 0.176623 4.03757 167 178 182
-2.2118 0.182695 4.03704 165 176 180
-1.63561 -1.10807 3.45971 158 169 177
-1.84023 -1.00361 3.22147 154 166 172
-2.01671 0.0607922 4.19972 193 202 206
-2.23093 0.20927 3.99383 161 173 179
-1.62824 -1.10317 3.44378 162 174 180
-2.2691 0.24147 3.95614 158 168 175
-2.05194 0.0963589 4.15238 192 201 205
-1.96517 0.0324822 4.22109 192 201 205
-2.83658 -0.431875 2.12647 156 168 174
-1.99936 0.0687967 4.19371 192 201 205
-1.87625 -0.0854637 4.21569 188 197 201
-2.00342 0.0735466 4.18489 196 205 209
-2.00257 0.0738052 4.18103 194 203 207
-2.25061 0.239339 3.94199 158 168 175
-2.10002 0.147257 4.08876 180 188 195
-2.0129 0.0869322 4.16027 197 203 208
-1.96001 0.0474409 4.17983 197 203 208
-2.21902 0.241693 3.94905 158 168 175
-1.99447 0.0942723 4.15365 202 208 213
-1.99447 0.0942723 4.15365 202 208 213
-2.07678 0.15379 4.08447 199 203 222
-2.142 0.2047 4.01732 158 168 175
-1.28113 -1.24796 3.75702 164 172 179
-2.17303 0.224077 3.98134 157 167 174
-1.24905 -1.37005 3.65999 161 172 176
-2.12 0.189972 4.02517 164 175 179
-2.07038 0.159368 4.07151 193 197 216
-2.07463 0.161685 4.0612 213 217 236
-1.98484 0.105018 4.14244 206 212 217
-1.39844 -1.18492 3.61187 165 175 182
-1.97569 0.0995206 4.14137 205 211 216
-1.95591 0.0873718 4.15792 202 208 213
-2.10996 0.191881 4.02052 163 175 177
-2.10996 0.191881 4.02052 163 175 177
-1.23036 -1.3783 3.65333 161 173 177
-1.93085 0.0827218 4.18195 204 210 215
-1.64786 -0.886067 3.52989 146 159 167
-1.96581 0.104584 4.14861 206 212 217
-1.96581 0.104584 4.14861 206 212 217
-2.71298 -0.443412 2.29154 162 173 177
-2.01644 0.132218 4.08983 209 215 222
-1.25742 -1.29381 3.69231 158 168 175
-1.54707 -1.09922 3.44067 164 176 180
-1.26095 -1.24182 3.74562 157 168 176
-2.14578 0.22375 3.97612 151 161 168
-1.23228 -1.36713 3.64576 160 172 178
-1.95637 0.0995484 4.14009 209 215 220
-1.26459 -1.25263 3.71861 160 172 178
-0.79231 -1.06908 4.69312 152 165 173
-1.6674 -0.923477 3.42228 145 158 166
-1.24227 -1.2866 3.69681 156 166 173
-2.11735 0.215195 3.98617 157 169 175
-1.962 0.116979 4.11764 213 217 222
-1.24328 -1.27795 3.69545 157 167 174
-2.06101 0.184877 4.03052 222 228 241
-1.2759 -1.20003 3.72749 156 170 176
-1.91 0.0905396 4.16581 208 214 219
-1.91 0.0905396 4.16581 208 214 219
-1.8043 0.0437036 4.27945 194 203 207
-1.66312 -0.882989 3.45848 149 162 170
-1.94375 0.108829 4.12697 211 217 222
-1.96553 0.125917 4.10844 213 217 222
-1.91351 0.095185 4.15551 206 215 219
-1.947 0.115058 4.12416 212 218 223
-2.22421 0.300196 3.8782 153 164 172
-1.23822 -1.25117 3.70455 153 162 171
-1.78647 -0.751659 3.38903 147 161 167
-2.28083 0.331792 3.81282 161 172 180
-2.0173 0.169381 4.04972 222 225 239
-2.21722 0.303435 3.86724 148 159 167
-2.21722 0.303435 3.86724 148 159 167
-1.24306 -1.20066 3.72575 56 50 107
-1.24674 -1.19592 3.72194 52 47 102
-1.884 0.098508 4.14084 212 219 222
-1.64656 -0.828843 3.46416 145 158 166
-1.98203 0.1776 4.04005 251 255 255
-1.17581 -1.25988 3.71327 62 59 109
-2.21845 0.326518 3.83395 135 144 154
-1.42061 -0.950898 3.66586 155 168 176
-1.23249 -1.17282 3.70641 37 39 69
-2.22679 0.338317 3.81825 55 54 93
-1.81483 0.0963021 4.17594 209 215 220
-1.0688 -1.45431 3.63771 244 246 246
-1.65954 -0.887692 3.34632 145 158 166
-1.85105 0.112828 4.12332 218 223 226
-1.97629 0.194949 4.01608 252 255 253
-1.99079 0.203842 4.00169 252 254 254
-2.22216 0.349229 3.80426 49 49 85
-0.986551 -1.51133 3.67578 232 237 240
-1.64164 -0.967 3.2701 160 174 180
-1.1053 -1.23618 3.78712 136 145 154
-1.64263 -0.964138 3.26806 159 173 179
-2.20061 0.343621 3.81731 132 141 151
-1.13373 -1.37178 3.58021 249 252 255
-1.93425 0.186718 4.02297 251 254 252
-1.62572 -0.944965 3.28994 161 172 180
-2.09888 0.299226 3.88523 131 140 143
-1.92037 0.184129 4.02568 252 255 253
-1.95825 0.209643 3.99586 252 255 253
-2.09424 0.297132 3.88518 128 137 140
-2.09424 0.297132 3.88518 128 137 140
-1.09375 -1.40369 3.57733 252 255 253
-1.93461 0.195977 4.01021 252 255 253
-1.91112 0.190964 4.01871 252 255 253
-1.91112 0.190964 4.01871 252 255 253
-1.61119 -0.903096 3.32061 155 171 178
-1.61755 -0.847027 3.36673 148 161 169
-1.91481 0.194795 4.00882 251 254 252
-2.18683 0.359286 3.78358 43 52 66
-1.91973 0.199238 4.00383 253 255 254
-1.60155 -0.923703 3.30571 158 171 179
-1.97138 0.233337 3.96212 252 254 254
-1.78072 0.118789 4.11357 224 229 232
-1.88754 0.187421 4.02446 252 255 253
-1.88754 0.187421 4.02446 252 255 253
-1.59286 -0.904777 3.32373 155 171 178
-2.15433 0.351382 3.80161 118 128 135
-1.93487 0.220328 3.97852 252 255 253
-0.948991 -1.47546 3.65528 253 255 254
-1.75983 0.113253 4.11531 217 224 227
-1.89131 0.195011 4.00891 252 255 253
-1.89131 0.195011 4.00891 252 255 253
-1.77372 0.122103 4.10099 224 229 232
-2.07207 0.314145 3.86731 52 49 44
-0.86987 -1.52204 3.70777 252 255 253
-1.79578 0.140763 4.07746 230 235 238
-1.79578 0.140763 4.07746 230 235 238
-1.20992 -1.18174 3.56634 114 124 131
-1.76447 0.12236 4.10022 223 228 231
-1.78859 0.138374 4.07973 230 235 238
-1.58777 -0.878003 3.33339 150 163 171
-1.87791 0.194676 4.0082 252 255 253
-1.26321 -1.07698 3.58722 160 174 180
-1.58552 0.286315 4.48777 221 226 229
-0.784003 -1.56629 3.75093 248 253 252
-1.69162 0.0914572 4.1386 202 211 215
-1.86269 0.195902 4.00182 252 255 253
-1.71589 0.115217 4.12608 213 220 223
-1.71589 0.115217 4.12608 213 220 223
-1.69867 0.0973114 4.12861 205 211 216
-2.15516 0.41545 3.80949 33 35 35
-1.86293 0.201805 4.00258 252 255 253
-0.932061 -1.46114 3.6375 252 255 253
-1.67948 0.0958213 4.13268 201 210 214
-1.8921 0.22709 3.96572 252 255 253
-1.19298 -1.16437 3.54604 117 125 125
-1.71071 0.560943 4.65261 32 34 34
-0.982296 -1.31358 3.68711 47 43 38
-1.88287 0.230982 3.96964 252 255 253
-2.10495 0.362689 3.79419 173 177 171
-2.06263 0.344159 3.82729 46 43 38
-1.84339 0.205442 3.99023 252 255 253
-1.82555 0.198563 4.00152 252 255 253
-1.82555 0.198563 4.00152 252 255 253
-2.10104 0.369308 3.79122 204 212 202
-1.8434 0.213668 3.97977 252 255 253
-1.85492 0.221674 3.96715 252 255 253
-1.83976 0.211354 3.97768 252 255 253
-1.82619 0.206433 3.99016 251 254 252
-1.83005 0.211207 3.98359 252 255 253
-1.83005 0.211207 3.98359 252 255 253
-0.957101 -1.30377 3.68747 48 45 40
-2.11132 0.387314 3.77101 51 56 55
-0.944053 -1.34049 3.66479 48 45 40
-2.09669 0.375514 3.77657 108 185 188
-1.81505 0.206364 3.98867 252 255 253
-1.80783 0.202289 3.98985 252 255 253
-1.81783 0.210869 3.98337 252 255 253
-1.81783 0.210869 3.98337 252 255 253
-2.08164 0.372884 3.78366 6 10 11
-0.883025 -1.42495 3.65275 239 241 242
-1.80517 0.208542 3.98428 252 255 253
-1.79895 0.206445 3.98642 253 255 254
-0.876181 -1.41636 3.65542 124 124 124
-1.81536 0.219776 3.9734 251 254 252
-2.10156 0.393208 3.75712 55 57 58
-0.869872 -1.41652 3.65566 129 129 129
-0.863821 -1.45424 3.62416 244 246 246
-1.23319 -1.05757 3.51314 48 55 58
-1.23319 -1.05757 3.51314 48 55 58
-1.24281 -1.03924 3.51461 184 196 200
-0.859801 -1.44763 3.62567 238 240 240
-1.86008 0.256703 3.9235 158 160 161
-2.06167 0.380434 3.76555 36 36 30
-2.03325 0.370518 3.78948 35 34 30
-1.65831 0.195607 4.10883 175 179 184
-1.99764 0.358365 3.81581 41 39 31
-1.16029 -0.991233 3.63027 185 194 197
-1.80603 0.247809 3.95533 215 216 220
-2.02748 0.37597 3.78347 33 32 28
-0.982833 -1.17177 3.67918 101 193 188
-2.08611 0.561342 3.87114 31 35 36
-2.01722 0.375648 3.78206 32 31 27
-2.08157 0.565171 3.86698 57 62 63
-0.907812 -1.19529 3.72474 29 43 62
-1.94136 0.336431 3.8245 50 47 42
-0.881916 -1.36181 3.59481 32 29 24
-2.05674 0.455158 3.77823 122 142 89
-0.909292 -1.1939 3.70991 30 32 32
-1.98557 0.36747 3.78401 33 32 28
-0.905284 -1.20382 3.7033 32 31 27
-2.70225 -0.27732 2.30072 132 145 153
-0.905462 -1.2029 3.6958 30 31 29
-0.902982 -1.19191 3.70648 32 31 33
-0.902501 -1.18337 3.7143 57 128 172
-0.908308 -1.23364 3.6582 28 27 23
-1.96738 0.359539 3.78317 36 35 31
-0.899532 -1.22334 3.67448 35 32 28
-0.849464 -1.36149 3.60908 32 29 25
-2.07096 0.577828 3.84482 132 143 147
-0.900911 -1.24655 3.64298 33 32 28
-0.900133 -1.19477 3.69006 33 31 30
-0.900133 -1.19477 3.69006 33 31 30
-0.898403 -1.19576 3.68354 30 30 30
-0.896758 -1.18837 3.69027 28 34 45
-2.03564 0.462062 3.76665 41 52 14
-1.95327 0.366815 3.78003 33 32 28
-0.894409 -1.24687 3.62967 30 29 25
-1.73279 0.28656 3.97728 39 38 34
-0.891274 -1.23268 3.64238 33 32 28
-0.890062 -1.1791 3.69 51 119 166
-0.890062 -1.1791 3.69 51 119 166
-0.891864 -1.18522 3.68164 40 47 67
-0.890458 -1.17146 3.69345 55 129 177
-0.888966 -1.18088 3.68365 64 116 163
-1.92704 0.357565 3.78928 34 33 29
-0.888381 -1.17286 3.68816 53 127 175
-0.886759 -1.16684 3.69311 62 139 185
-0.606126 -1.59845 3.64948 170 178 185
-0.884656 -1.18468 3.67608 14 45 76
-0.612199 -1.53593 3.69427 197 194 210
-0.612199 -1.53593 3.69427 197 194 210
-0.881133 -1.24463 3.62524 32 33 29
-0.883657 -1.17474 3.68438 50 123 173
-0.625665 -1.51651 3.69309 31 32 36
-0.880975 -1.17664 3.67938 47 123 176
-0.880975 -1.17664 3.67938 47 123 176
-1.55419 -0.620182 3.35125 224 240 247
-0.875166 -1.22885 3.63419 29 28 24
-1.54767 -0.643672 3.33593 123 140 149
-0.877534 -1.17371 3.67894 54 132 185
-0.618951 -1.51557 3.68606 35 35 41
-0.873933 -1.17435 3.67628 55 133 186
-0.873933 -1.17435 3.67628 55 133 186
-0.617141 -1.513 3.68626 24 24 38
-1.54185 -0.646225 3.33249 163 182 190
-0.870138 -1.17031 3.67759 64 142 195
-0.862273 -1.19147 3.66563 15 14 24
-0.864311 -1.17147 3.67533 66 147 198
-1.54004 -0.644524 3.32192 149 167 178
-0.85915 -1.15374 3.6883 70 150 203
-1.52631 -0.628387 3.34621 155 174 181
-0.585031 -1.5418 3.66834 39 30 51
-1.52375 -0.640162 3.33579 126 145 153
-0.847315 -1.15284 3.68939 78 161 212
-0.847315 -1.15284 3.68939 78 161 212
-0.845551 -1.18027 3.66394 67 151 203
-0.843195 -1.1676 3.67452 74 154 207
-0.841754 -1.14762 3.69203 67 147 200
-1.93804 0.40121 3.73307 29 74 118
-1.92177 0.39714 3.74308 31 73 118
-0.574873 -1.52115 3.65939 213 228 247
-0.565345 -1.52441 3.66807 215 230 249
-1.50315 -0.622441 3.3444 48 53 56
-0.557542 -1.51826 3.64378 141 209 238
-0.695457 -1.2895 3.67734 28 30 30
-1.47251 -0.630435 3.34062 51 56 59
-0.759212 -1.20145 3.67255 38 130 173
-1.47236 -0.0258662 3.85032 185 214 228
-0.883322 -1.08209 3.62716 149 167 184
-0.572352 -1.51997 3.61183 197 224 245
-0.879558 -1.0437 3.63415 223 237 255
-1.52019 0.375322 4.10096 48 84 120
-0.532122 -1.60936 3.55038 136 193 215
-0.870351 -1.04452 3.63419 66 82 99
-1.51823 0.386999 4.09352 116 97 52
-1.13093 -0.875167 3.46816 231 251 255
-0.547733 -1.51748 3.58145 122 115 242
-1.4367 0.3175 4.11039 47 82 138
-0.797507 -1.10375 3.64303 86 106 123
-1.43129 0.324249 4.10987 55 66 64
-1.49452 0.39339 4.09452 116 99 50
-0.664362 -1.26133 3.63586 190 207 226
-0.64787 -1.19376 3.69429 234 248 255
-0.686167 -1.16951 3.65146 115 128 144
-0.860504 -1.00277 3.59403 74 94 112
-0.51884 -1.44331 3.60248 58 53 52
-1.0874 -0.860597 3.45555 201 221 238
-1.4435 0.390826 4.0729 128 136 143
-0.761617 -1.03671 3.65257 52 70 87
-3.71678e+07 6.52001e+06 -3.37885e+07 114 207 208
-1.07146 -0.856597 3.45195 128 148 165
-0.336875 -1.70924 3.54609 162 171 180
-0.32947 -1.70519 3.54618 128 135 144
-0.326187 -1.71752 3.52768 115 126 134
-0.846103 -0.970152 3.55473 124 146 164
-0.849182 -0.961961 3.54899 198 220 238
-0.856634 -1.20772 3.34269 43 58 74
-0.854825 -1.20398 3.34407 48 63 79
-1.23475 -0.0494465 3.84654 213 218 217
-0.851527 -1.22264 3.32539 102 105 66
-1.02642 -0.839243 3.44165 51 67 84
-1.65572 0.547218 3.86765 84 101 120
-0.335149 -1.67582 3.49931 35 44 47
-1.64888 0.546561 3.87319 77 95 112
-1.46634 0.101218 3.70628 83 94 92
-0.833439 -1.22902 3.31741 104 103 43
-0.829328 -1.24208 3.31096 105 105 45
-0.837971 -1.18801 3.34335 137 154 173
-0.765893 -1.12222 3.46093 147 167 185
-0.824957 -1.23726 3.30968 120 119 58
-0.411326 -1.58987 3.458 35 40 39
-0.839772 -1.17342 3.34141 120 140 158
-0.839772 -1.17342 3.34141 120 140 158
-0.945152 -0.880932 3.45743 40 45 60
-0.945152 -0.880932 3.45743 40 45 60
-0.769016 -1.11992 3.45236 120 140 158
-0.767099 -1.11416 3.45846 171 191 209
-0.823403 -1.18792 3.34303 125 142 161
-0.821657 -1.23896 3.30406 118 115 54
-0.829165 -1.18101 3.33987 215 235 253
-0.769506 -1.11264 3.45062 197 216 237
-0.820924 -1.18626 3.33827 188 205 224
-0.829397 -1.17432 3.33653 138 157 178
-0.769132 -1.11103 3.44538 181 201 219
-0.769132 -1.11103 3.44538 181 201 219
-0.809565 -1.19667 3.33517 126 140 158
-1.34971 0.0552787 3.74639 34 45 53
-0.833604 -1.16365 3.33539 163 181 198
-0.350053 -1.64543 3.45379 47 60 62
-0.984945 -0.837849 3.42932 49 51 62
-0.77083 -1.25966 3.32233 96 95 37
-0.809235 -1.18282 3.34146 168 186 203
-0.829195 -1.16263 3.33202 219 236 255
-0.822318 -1.16988 3.33277 138 151 183
-0.828461 -1.15877 3.33445 190 208 225
-0.77903 -1.08272 3.44022 133 153 171
-0.803295 -1.18138 3.33849 196 212 228
-1.34791 0.060323 3.73524 53 65 75
-1.35281 0.0647655 3.72991 104 116 126
-1.35453 0.0679388 3.72904 92 104 114
-0.77892 -1.08237 3.43182 118 141 157
-0.79407 -1.04362 3.44461 64 71 86
-1.34055 0.0609881 3.73371 80 92 102
-1.33747 0.0594419 3.7347 61 77 84
-1.33747 0.0594419 3.7347 61 77 84
-1.34057 0.0638972 3.73209 92 107 116
-1.34211 0.0666899 3.73264 80 92 102
-0.796372 -1.1263 3.37442 170 189 204
-0.821452 -1.14419 3.33235 109 125 141
-0.795362 -1.11929 3.37502 219 238 253
-0.806513 -1.01138 3.44146 34 40 51
-1.25432 0.026944 3.77892 36 48 52
-0.776341 -1.20792 3.32069 106 118 122
-0.810854 -0.986221 3.4528 196 213 232
-0.809705 -0.990332 3.45036 96 112 129
-0.779405 -1.18732 3.33041 198 210 220
-0.816522 -1.13568 3.33131 71 87 104
-0.770749 -1.21367 3.3177 99 110 114
-0.807023 -1.0135 3.4309 40 46 57
-0.810172 -0.976408 3.45549 133 150 169
-0.78209 -1.07516 3.40833 127 149 167
-0.78209 -1.07516 3.40833 127 149 167
-0.793632 -1.05768 3.4095 208 227 248
-0.808842 -0.995478 3.44089 213 228 244
-0.808842 -0.995478 3.44089 213 228 244
-0.792279 -1.10581 3.37447 140 160 178
-1.34836 0.0779201 3.71363 105 118 132
-0.809386 -1.0009 3.4337 34 43 56
-0.784191 -1.07155 3.40501 126 148 166
-1.16613 -0.0150694 3.81868 238 252 255
-0.806082 -1.01038 3.42719 46 52 63
-0.806082 -1.01038 3.42719 46 52 63
-0.81008 -0.987493 3.44029 197 216 231
-0.7885 -1.0643 3.40407 203 223 240
-0.801471 -1.03942 3.40935 80 92 110
-0.804355 -1.02075 3.42029 80 88 101
-0.781768 -1.07605 3.40091 144 166 184
-0.797957 -1.15702 3.32444 156 170 188
-0.808047 -1.1478 3.32011 134 149 165
-0.809048 -0.992806 3.43463 197 213 226
-0.801596 -1.02636 3.41522 101 109 122
-0.812604 -1.1385 3.32062 146 161 177
-0.789825 -1.10452 3.3667 146 163 182
-0.796793 -1.04415 3.40433 128 144 161
-0.803065 -1.02327 3.41295 61 69 82
-0.950326 -0.821748 3.41843 50 52 63
-0.791604 -1.08686 3.37556 184 204 221
-1.25105 0.0380939 3.76312 50 137 127
-0.767314 -1.20803 3.30778 107 119 123
-0.80782 -0.986175 3.43295 207 226 239
-1.24361 0.0335276 3.76598 72 136 130
-0.804665 -1.14506 3.31752 157 173 189
-1.2403 0.0284987 3.76439 64 120 115
-0.76056 -1.21646 3.30598 98 110 114
-0.795461 -1.1517 3.31967 139 152 168
-1.34995 0.266532 3.83238 43 71 52
-1.19912 0.0120404 3.79009 88 106 105
-0.807263 -0.992674 3.4245 41 52 66
-1.37818 0.421826 3.91898 104 119 122
-1.24974 0.0407146 3.75865 99 176 168
-0.791384 -1.09591 3.36089 193 208 227
-0.791913 -1.05382 3.39055 100 121 136
-0.803558 -1.00794 3.41305 60 66 79
-0.79969 -0.932684 3.47241 78 102 122
-0.807863 -0.971106 3.43554 146 169 185
-0.805595 -0.993723 3.42084 50 59 73
-0.805595 -0.993723 3.42084 50 59 73
-0.805696 -1.13487 3.316 153 168 184
-0.805996 -0.999711 3.41572 51 59 72
-0.784216 -1.06279 3.38966 107 126 141
-0.805235 -0.983281 3.42796 129 148 163
-0.805658 -0.986545 3.4249 112 127 143
-0.805658 -0.986545 3.4249 112 127 143
-1.1903 0.0165964 3.7937 67 112 103
-1.1903 0.0165964 3.7937 67 112 103
-1.32828 0.0842236 3.70981 96 112 124
-0.783168 -1.06649 3.38622 182 202 219
-0.789851 -1.14913 3.31756 178 191 207
-0.805474 -0.944761 3.45083 143 166 188
-0.798332 -1.0258 3.39775 57 72 88
-0.783804 -1.06037 3.38609 192 213 228
-0.806404 -0.954792 3.44191 135 157 175
-0.806404 -0.954792 3.44191 135 157 175
-0.791738 -1.11274 3.33803 44 59 75
-1.20261 0.0224784 3.77875 25 137 119
-0.783341 -1.06302 3.38186 195 216 231
-1.2374 0.0407783 3.75757 128 163 159
-0.799991 -0.964552 3.43801 180 203 219
-0.802198 -0.999354 3.40995 39 47 60
-0.805428 -0.968142 3.42957 175 198 213
-0.797823 -1.02232 3.39686 48 61 77
-0.80372 -0.95716 3.43845 136 158 176
-0.799065 -1.02586 3.39054 70 84 103
-0.799065 -1.02586 3.39054 70 84 103
-1.18953 0.0188925 3.78384 39 150 130
-1.18953 0.0188925 3.78384 39 150 130
-1.2382 0.044387 3.75512 87 104 101
-0.801317 -1.1169 3.32038 127 142 158
-0.805944 -0.942142 3.44429 95 118 140
-1.3744 0.491607 3.9506 141 153 157
-0.790104 -1.10245 3.33902 107 122 138
-1.19815 0.0274109 3.77704 18 117 101
-0.804275 -0.937003 3.44647 168 192 212
-0.801334 -1.00943 3.39485 45 54 68
-0.798014 -1.02357 3.38755 89 103 121
-1.14467 0.00110495 3.8075 85 144 140
-1.23834 0.0462382 3.75049 105 124 121
-0.791941 -1.08381 3.34719 146 163 182
-0.791941 -1.08381 3.34719 146 163 182
-0.795802 -1.02523 3.3863 100 119 134
-0.800476 -0.953469 3.43422 183 207 227
-0.8019 -0.940978 3.44135 175 199 219
-0.802649 -0.986414 3.40712 60 69 82
-0.798934 -1.11344 3.31588 169 183 201
-1.18757 0.0235401 3.77687 29 99 86
-1.18757 0.0235401 3.77687 29 99 86
-0.794466 -1.03238 3.3792 177 193 209
-1.13655 0.00152079 3.80817 39 122 114
-0.799775 -0.917015 3.45592 57 79 97
-1.56243 -0.978587 2.68133 79 97 114
-0.797892 -0.92394 3.45239 72 96 114
-0.796379 -1.02619 3.3782 137 153 169
-0.800711 -0.920082 3.45144 102 124 142
-0.800411 -0.929142 3.44492 202 226 244
-0.803502 -0.975026 3.40727 54 62 79
-1.1405 0.00643387 3.80298 69 137 130
-0.798375 -0.964751 3.41919 80 100 117
-0.800037 -0.990023 3.39906 54 63 76
-0.79199 -1.12228 3.30981 62 76 94
-0.798751 -1.01289 3.38332 61 74 90
-0.790631 -1.09086 3.33349 110 124 142
-0.790464 -1.08525 3.33723 121 137 154
-0.799873 -0.921746 3.44747 71 95 113
-0.795037 -1.0293 3.37327 55 71 87
-0.797818 -0.948903 3.42872 117 141 159
-0.797818 -0.948903 3.42872 117 141 159
-0.794788 -1.07073 3.3411 142 160 177
-1.15376 0.0223463 3.79421 77 100 96
-0.792589 -1.02932 3.37053 113 129 145
-1.14961 0.014557 3.79214 111 139 139
-1.14961 0.014557 3.79214 111 139 139
-0.7895 -1.09892 3.32266 230 243 255
-3.72453 -1.7507 0.048507 70 79 92
-1.13013 0.0047521 3.80299 196 221 223
-0.743932 -1.15431 3.32505 207 218 232
-0.743932 -1.15431 3.32505 207 218 232
-0.797472 -1.0128 3.37701 202 217 233
-0.798626 -0.931512 3.43451 99 123 143
-0.797726 -0.969004 3.40767 48 58 75
-0.797726 -0.969004 3.40767 48 58 75
-0.795966 -0.91066 3.45175 182 204 222
-0.795966 -0.91066 3.45175 182 204 222
-1.13655 0.00843548 3.79714 147 175 176
-0.797905 -1.00307 3.38165 55 66 80
-0.795749 -1.01539 3.37464 124 140 157
-0.797986 -0.996087 3.38587 58 67 80
-0.800882 -0.98483 3.39082 41 50 64
-0.800237 -0.98061 3.39364 44 53 67
-1.11769 0.00236914 3.80725 197 217 222
-1.11769 0.00236914 3.80725 197 217 222
-0.799443 -0.971372 3.40048 37 48 62
-1.12178 0.0050462 3.80457 199 221 226
-1.19722 0.03975 3.75735 77 97 92
-0.796351 -1.00842 3.37513 78 91 105
-1.1468 0.0155394 3.78706 103 128 130
-0.792166 -0.902173 3.45464 117 141 161
-0.794081 -1.00123 3.38031 57 70 84
-0.791276 -0.947819 3.42123 98 121 137
-0.791276 -0.947819 3.42123 98 121 137
-0.788524 -1.03339 3.36095 94 110 126
-0.800576 -0.918584 3.43278 176 198 216
-0.794969 -1.02032 3.36422 160 175 191
-1.13145 0.0107886 3.79442 118 148 149
-0.796632 -0.99189 3.3825 66 78 90
-0.791888 -1.02553 3.36227 131 147 163
-0.785125 -1.11059 3.30671 105 116 136
-0.797086 -0.981933 3.38872 46 54 71
-1.11329 0.00202517 3.80351 210 229 234
-1.72903 0.66272 3.70105 68 84 100
-0.796835 -0.925627 3.42939 142 164 182
-0.910255 -0.810525 3.40519 50 57 72
-0.795682 -0.997745 3.37765 49 60 74
-0.795559 -0.905407 3.44457 40 62 80
-0.798994 -0.97764 3.38869 69 78 92
-0.790679 -1.03232 3.3568 77 93 109
-0.790679 -1.03232 3.3568 77 93 109
-0.793995 -0.951914 3.41183 143 160 179
-1.14764 0.00562559 3.77221 108 139 140
-0.790335 -1.09672 3.30942 218 228 246
-0.798176 -0.965849 3.39659 73 82 96
-0.796038 -1.01306 3.36374 110 126 142
-0.796038 -1.01306 3.36374 110 126 142
-0.79206 -1.02665 3.35734 80 96 112
-0.710393 -1.19219 3.31435 160 169 172
-0.763828 -1.1274 3.31085 217 227 244
-0.792386 -0.939575 3.41985 97 122 138
-1.13138 0.0140663 3.79061 111 141 142
-0.791165 -1.05615 3.33583 185 203 220
-1.12574 0.012611 3.79331 129 156 160
-0.797607 -0.998557 3.3704 105 118 132
-0.797607 -0.998557 3.3704 105 118 132
-1.10408 0.00126902 3.80512 193 212 217
-0.74342 -1.14196 3.31546 174 182 199
-0.795616 -0.918224 3.42783 129 151 169
-0.789675 -1.06502 3.32722 191 207 224
-0.789675 -1.06502 3.32722 191 207 224
-0.795831 -0.979366 3.38331 83 94 108
-0.793242 -1.0113 3.36208 206 222 238
-0.790726 -1.04147 3.34179 88 106 123
-0.788894 -0.944094 3.41176 98 113 129
-0.704427 -1.19791 3.30779 165 176 180
-0.788641 -1.07436 3.31777 212 226 245
-0.788641 -1.07436 3.31777 212 226 245
-0.791071 -1.03254 3.3444 186 205 220
-1.09872 0.00368984 3.80334 182 201 206
-0.790409 -1.05343 3.32884 205 223 240
-1.12267 0.0158729 3.78794 130 157 161
-1.12267 0.0158729 3.78794 130 157 161
-0.792442 -1.035 3.33834 76 94 111
-0.787971 -1.05588 3.32718 126 143 162
-0.794183 -0.899089 3.43372 94 114 131
-1.22255 0.0737357 3.73231 83 100 97
-0.89149 -0.811339 3.40436 94 105 119
-0.788083 -0.931946 3.41404 197 216 231
-0.78851 -0.936747 3.40923 69 82 96
-0.712875 -1.15947 3.31946 190 196 203
-1.12113 0.0208918 3.78607 129 157 158
-0.794228 -0.902445 3.42628 71 91 108
-0.791305 -0.950128 3.39458 78 87 101
-0.697369 -1.19245 3.30797 189 194 195
-0.789246 -1.02849 3.33961 199 219 236
-1.11021 0.0170215 3.79086 201 223 228
-0.773969 -1.09302 3.30593 136 147 169
-0.7894 -0.955242 3.38975 95 104 118
-0.790318 -0.960699 3.38463 48 58 68
-0.790091 -0.975585 3.37224 31 47 60
-1.08542 0.00375762 3.79922 207 223 229
-0.793785 -0.903085 3.41981 182 202 219
-0.790588 -0.993257 3.35804 90 109 124
-0.791044 -0.907954 3.41867 123 141 158
-1.09777 0.0108872 3.79183 197 216 221
-1.09777 0.0108872 3.79183 197 216 221
-0.780445 -1.07219 3.31034 152 166 185
-0.791304 -0.99027 3.35849 186 202 218
-0.791304 -0.99027 3.35849 186 202 218
-0.785433 -1.03325 3.3324 179 197 214
-1.13852 0.0317698 3.76692 105 136 135
-0.786554 -1.02482 3.33715 76 94 111
-0.897418 -0.806014 3.39067 73 83 100
-0.69893 -1.16072 3.31962 210 215 218
-0.781858 -1.04983 3.32191 152 168 185
-0.782861 -1.04465 3.32411 99 117 134
-0.78693 -1.02123 3.33698 127 145 162
-0.789936 -0.966772 3.37281 77 90 104
-0.788939 -0.915921 3.40994 97 113 126
-0.786755 -1.01659 3.33991 152 168 185
-0.792378 -0.895163 3.42097 71 91 108
-1.11748 0.026991 3.77774 125 154 158
-0.790493 -0.910541 3.41069 111 126 142
-1.11083 0.0236899 3.78146 175 200 204
-1.11083 0.0236899 3.78146 175 200 204
-0.687206 -1.17699 3.31593 197 202 201
-1.49702 -0.0581016 3.36745 57 69 69
-1.14035 0.034798 3.76121 109 138 135
-0.770236 -1.0764 3.30943 108 122 141
-0.78522 -1.00076 3.34925 98 117 132
-0.783251 -0.937943 3.39545 31 40 53
-0.652633 -1.23958 3.30027 38 137 175
-1.09851 0.0208725 3.78634 195 215 220
-0.785111 -0.969505 3.36937 84 100 116
-0.789134 -0.905469 3.41116 95 108 122
-0.782112 -1.02114 3.33361 103 121 138
-0.778291 -1.03994 3.32298 105 123 140
-0.781128 -1.0131 3.33918 136 154 171
-0.785427 -0.959397 3.37346 58 69 83
-0.785427 -0.959397 3.37346 58 69 83
-0.785427 -0.959397 3.37346 58 69 83
-0.790433 -0.877825 3.42658 136 158 176
-0.691338 -1.21102 3.28055 150 200 218
-0.780046 -1.03344 3.32489 88 106 123
-1.11126 0.0274575 3.77431 146 173 177
-0.784163 -0.954672 3.37625 61 70 84
-0.789157 -0.901737 3.40899 107 118 132
-0.780062 -0.919637 3.40365 39 45 58
-1.12698 0.0343452 3.76131 114 144 145
-0.784856 -0.902814 3.40861 27 34 49
-0.788561 -0.895014 3.41051 104 120 133
-0.779845 -0.93787 3.38785 77 86 99
-0.701909 -1.14567 3.31177 245 251 255
-0.737859 -1.11093 3.30284 119 128 148
-0.679046 -1.16598 3.31693 204 206 206
-0.782785 -0.950404 3.37425 53 65 77
-0.687529 -1.20413 3.28142 212 214 214
-0.687529 -1.20413 3.28142 212 214 214
-0.681999 -1.2149 3.27864 176 205 220
-0.216604 -1.56293 3.45962 82 95 93
-0.78157 -0.9405 3.38158 60 69 83
-1.14001 0.0451025 3.7506 84 108 106
-0.684569 -1.15777 3.3153 213 218 217
-0.780241 -0.919126 3.39656 27 35 48
-1.21745 0.251324 3.82316 78 90 94
-1.19338 0.0593292 3.7084 46 63 60
-0.777522 -0.991324 3.34461 145 163 180
-1.06287 0.012424 3.79404 204 220 226
-0.773809 -1.00387 3.3386 54 72 89
-0.776063 -0.997752 3.34025 86 103 122
-1.1342 0.0476887 3.75111 123 148 150
-1.12817 0.0432982 3.75278 112 141 145
-1.12817 0.0432982 3.75278 112 141 145
-0.77497 -0.991696 3.34333 151 169 186
-1.05882 0.00918515 3.79158 198 210 214
-1.05882 0.00918515 3.79158 198 210 214
-1.07188 0.0187523 3.7854 193 209 215
-0.722074 -1.11128 3.30471 214 223 243
-0.772807 -0.998127 3.33786 141 158 177
-0.772807 -0.998127 3.33786 141 158 177
-1.0639 0.0167854 3.78863 188 204 210
-0.781821 -0.885405 3.40834 23 36 50
-0.777964 -0.878863 3.41547 145 161 177
-0.777964 -0.878863 3.41547 145 161 177
-0.772917 -0.991475 3.34044 135 152 171
-0.776323 -0.916687 3.38929 54 63 76
-0.711364 -1.1192 3.30552 159 169 187
-0.742437 -1.08069 3.3039 201 212 234
-1.1243 0.0449525 3.7492 111 140 144
-1.1243 0.0449525 3.7492 111 140 144
-1.05343 0.0126453 3.79112 195 206 210
-1.1158 0.0434543 3.75505 132 163 166
-0.753805 -1.06085 3.30599 89 100 120
-0.766294 -1.02506 3.31984 89 106 125
-0.771088 -0.981874 3.34552 116 134 151
-0.774921 -0.943357 3.36898 66 76 93
-1.12756 0.0485588 3.74691 111 140 144
-0.743463 -1.08053 3.30048 102 113 135
-0.732058 -1.09296 3.30201 101 112 132
-0.742075 -1.07696 3.30331 131 141 165
-1.18024 0.059922 3.70494 50 67 64
-0.770659 -0.984208 3.34198 63 81 98
-0.775302 -0.912352 3.38829 53 62 75
-0.775382 -0.922828 3.38043 58 68 78
-0.7742 -0.947377 3.36416 55 70 86
-0.752302 -1.05429 3.30723 120 131 151
-0.766556 -1.00171 3.33109 98 116 133
-0.772228 -0.914194 3.38592 61 70 83
-1.11396 0.045308 3.75015 133 162 166
-0.691142 -1.06904 3.35021 173 184 206
-0.738242 -1.07841 3.30035 192 203 225
-0.744059 -1.06202 3.30635 130 141 163
-1.13002 0.0523952 3.73871 110 138 139
-1.13002 0.0523952 3.73871 110 138 139
-0.757892 -1.02458 3.31907 92 106 128
-0.77362 -0.934074 3.36773 121 131 148
-0.760604 -1.01945 3.31936 128 145 164
-0.773964 -0.928962 3.37075 42 51 64
-0.77123 -0.942898 3.3633 78 91 107
-0.700224 -1.11849 3.30409 212 219 238
-0.741613 -1.06795 3.30186 205 216 238
-0.775282 -0.875872 3.40609 41 51 68
-0.773706 -0.88759 3.39842 27 36 50
-1.05287 0.0188042 3.7808 93 104 108
-0.744891 -1.05624 3.30496 82 93 113
-0.678253 -1.139 3.30642 212 217 218
-0.741809 -1.06013 3.30397 99 110 130
-0.765513 -0.969544 3.34557 109 126 145
-0.764732 -0.96442 3.34977 96 108 136
-0.775456 -0.901047 3.38444 73 85 97
-0.775456 -0.901047 3.38444 73 85 97
-1.04638 0.0174487 3.78307 98 107 111
-0.77326 -0.893979 3.39024 124 136 148
-0.762968 -0.991441 3.3312 88 105 126
-1.1151 0.050018 3.74222 124 153 157
-0.743138 -1.04899 3.30708 120 131 151
-1.05816 0.0236823 3.77278 96 109 117
-1.05816 0.0236823 3.77278 96 109 117
-1.11751 0.053151 3.73897 111 140 144
-1.11751 0.053151 3.73897 111 140 144
-1.47592 0.599703 3.79694 181 181 175
-0.770477 -0.871122 3.40401 37 50 66
-0.742921 -1.04571 3.30624 206 217 237
-0.765304 -0.935948 3.36221 123 136 152
-0.765304 -0.935948 3.36221 123 136 152
-0.776442 -0.85035 3.41176 165 179 201
-1.05965 0.0342375 3.77408 178 196 203
-0.769182 -0.885872 3.39145 98 111 127
-0.751489 -1.02128 3.31248 109 125 142
-1.17145 0.420627 3.94053 98 117 120
-1.10565 0.0501761 3.74058 171 195 201
-1.10929 0.0522622 3.73861 153 179 185
-0.764731 -0.877373 3.39806 166 178 196
-0.759198 -0.9559 3.34784 135 149 167
-0.738848 -1.03643 3.3097 196 210 229
-0.829534 -0.800326 3.39246 95 103 116
-0.668407 -1.1333 3.30509 206 211 210
-0.765503 -0.869392 3.40025 45 58 74
-0.73128 -1.05366 3.3025 124 135 155
-1.12491 0.0554907 3.72182 106 135 139
-0.742852 -1.02614 3.31069 114 128 146
-1.14355 0.0649584 3.71106 60 81 79
-0.75386 -0.982929 3.33062 73 88 107
-0.75551 -0.950417 3.34892 159 175 192
-0.762047 -0.905547 3.37384 42 53 67
-0.602145 -1.23266 3.28892 204 205 201
-0.760991 -0.931444 3.35519 73 84 98
-1.09475 0.0476987 3.73568 157 183 190
-0.763521 -0.89208 3.37796 74 87 103
-0.765192 -0.887719 3.37853 95 111 124
-0.757599 -0.850429 3.41012 36 43 58
-0.761593 -0.879163 3.38654 62 78 94
-0.758163 -0.869101 3.39586 130 146 162
-0.707988 -1.07325 3.29893 180 191 211
-0.707988 -1.07325 3.29893 180 191 211
-0.736591 -1.02184 3.30819 114 130 146
-0.750477 -0.947936 3.3458 80 98 115
-0.743555 -0.98535 3.32588 79 94 113
-0.719413 -1.0529 3.30026 238 249 255
-0.758114 -0.870981 3.39121 139 154 170
-0.591574 -1.22817 3.29211 209 207 199
-0.66895 -1.10903 3.30404 226 234 251
-0.762068 -0.855244 3.39668 155 168 184
-0.65552 -1.12421 3.30374 213 217 222
-0.755126 -0.908237 3.36425 83 94 108
-0.742515 -0.972782 3.33079 184 198 220
-0.727941 -1.02061 3.30714 125 140 156
-0.7294 -1.01338 3.31083 85 100 116
-0.735277 -0.987691 3.32168 94 110 127
-5.3663 -0.126058 -0.193848 102 116 128
-0.743967 -0.935172 3.3493 89 105 121
-0.743967 -0.935172 3.3493 89 105 121
-0.743967 -0.935172 3.3493 89 105 121
-0.750318 -0.896844 3.36831 88 98 115
-0.739304 -0.954864 3.33648 95 109 131
-0.989673 0.0180114 3.78506 83 93 100
-0.97316 0.0121876 3.79506 54 59 62
-0.97316 0.0121876 3.79506 54 59 62
-0.680484 -1.07909 3.30113 236 247 255
-0.744782 -0.915055 3.35658 39 50 64
-0.738943 -0.954145 3.33326 71 85 107
-0.74682 -0.858104 3.3916 172 185 201
-0.815694 -0.793107 3.37307 33 42 52
-0.976801 0.0149523 3.78562 47 51 56
-0.976801 0.0149523 3.78562 47 51 56
-0.720514 -1.0127 3.30511 176 189 205
-0.9918 0.0220103 3.77447 87 97 104
-0.9918 0.0220103 3.77447 87 97 104
-0.728483 -0.970705 3.32481 126 140 162
-1.03413 0.0418172 3.7503 160 180 191
-0.716234 -0.998332 3.31631 43 57 75
-0.716234 -0.998332 3.31631 43 57 75
-1.0562 0.0490622 3.73422 160 182 193
-1.00378 0.0312776 3.76596 145 161 168
-1.00378 0.0312776 3.76596 145 161 168
-0.727173 -0.956107 3.33098 96 111 130
-1.02501 0.0408651 3.75003 160 179 187
-0.569592 -1.22133 3.28585 200 195 186
-0.948913 0.00681496 3.79289 48 57 60
-0.95413 0.0125099 3.79217 54 59 62
-0.733318 -0.918218 3.3477 117 132 148
-1.03514 0.0468324 3.74219 159 181 193
-0.927203 0.00124817 3.80553 50 57 60
-0.654693 -1.0846 3.3019 146 154 183
-0.654693 -1.0846 3.3019 146 154 183
-0.672724 -1.06098 3.30004 166 175 195
-0.993703 0.030496 3.76355 118 131 139
-0.681632 -1.04878 3.29984 241 250 255
-0.728373 -0.281295 3.78211 35 41 46
-0.675699 -1.05389 3.29965 68 77 97
-1.0254 0.0468957 3.74405 151 172 180
-1.035 0.0514891 3.73795 153 176 184
-0.0556298 -1.60047 3.46672 35 38 36
-0.691755 -1.03054 3.29924 194 204 221
-0.726648 -0.905692 3.353 58 71 87
-0.960609 0.0165985 3.77601 49 54 57
-0.723883 -0.918864 3.34507 162 178 194
-0.999632 0.0354387 3.75355 171 187 194
-0.979844 0.0274565 3.76441 91 104 112
-0.728952 -0.880705 3.36443 73 86 102
-0.913255 0.000225989 3.80285 49 54 57
-0.711364 -0.946547 3.33114 46 62 79
-0.712784 -0.953847 3.32411 150 165 184
-0.692271 -1.01347 3.29823 66 76 93
-0.963777 0.0288087 3.76827 19 24 27
-0.714882 -0.856424 3.38244 44 57 73
-0.99168 0.0413748 3.75015 130 146 153
-0.658221 -1.04924 3.3001 88 97 117
-0.708474 -0.95272 3.32124 174 189 208
-0.938101 0.0162863 3.7776 21 26 29
-0.683067 -1.01947 3.29748 107 118 132
-0.716002 -0.891504 3.35464 85 98 114
-1.00658 0.0470366 3.7381 131 150 158
-0.627087 -1.09797 3.29184 175 182 191
-0.704011 -0.958912 3.31673 101 118 137
-0.692642 -0.994824 3.30141 79 92 114
-0.705167 -0.954194 3.31722 87 102 121
-0.991941 0.0465879 3.74276 123 139 146
-1.00265 0.050388 3.73541 123 140 149
-0.945078 0.0232237 3.76391 23 29 28
-0.945078 0.0232237 3.76391 23 29 28
-0.898388 0.00640484 3.7914 36 43 46
-0.708522 -0.846892 3.37914 59 70 84
-0.716524 -0.816286 3.3923 97 111 123
-0.701858 -0.92943 3.32858 76 91 110
-0.702686 -0.920338 3.33343 144 159 178
-0.990107 0.0480792 3.73747 118 134 141
-0.97018 0.0406942 3.74777 92 104 110
-0.660384 -1.02671 3.29486 111 120 140
-0.675454 -1.00663 3.29513 152 159 178
-0.684763 -0.980872 3.30296 163 176 198
-0.683279 -0.983868 3.30208 75 89 108
-0.730207 -0.802747 3.38214 83 98 114
-0.978073 0.0467815 3.7399 90 100 107
-0.93556 0.0264769 3.76224 28 33 36
-0.651942 -1.03142 3.29522 97 108 130
-0.691273 -0.954654 3.31289 150 161 181
-0.725083 -0.805483 3.38352 108 123 139
-0.695064 -0.928799 3.3251 90 104 126
-0.695064 -0.928799 3.3251 90 104 126
-0.983681 0.0494495 3.73256 115 127 133
-0.925859 0.0246694 3.76527 31 36 39
-0.925859 0.0246694 3.76527 31 36 39
-1.03399 0.447563 3.95599 82 84 84
-0.675391 -0.986563 3.30148 108 119 141
-0.689354 -0.944195 3.31655 103 117 135
-0.689354 -0.944195 3.31655 103 117 135
-1.01912 0.40792 3.93365 40 45 44
-0.838199 -0.272674 3.63323 44 56 62
-0.68492 -0.942291 3.31581 88 102 120
-1.02055 0.317351 3.8706 13 130 107
-1.02055 0.317351 3.8706 13 130 107
-0.654792 -1.01845 3.28965 101 112 132
-0.710021 -0.807628 3.38123 48 63 79
-0.710021 -0.807628 3.38123 48 63 79
-0.204713 -1.35871 3.44072 159 159 189
-0.695859 -0.812799 3.38693 110 123 139
-1.01255 0.301893 3.85974 53 118 103
-0.680362 -0.941073 3.31359 72 87 103
-0.714962 -0.80027 3.37781 52 66 84
-0.677602 -0.957335 3.30491 153 167 185
-0.509934 -1.22548 3.26819 125 117 94
-0.682932 -0.935148 3.31462 149 163 181
-0.658197 -0.99652 3.29415 188 200 218
-0.681529 -0.858246 3.36618 94 108 126
-0.672916 -0.964044 3.30278 122 135 157
-0.703087 -0.806442 3.38069 86 101 117
-0.933945 0.0405632 3.74775 5 10 13
-0.672994 -0.940692 3.31261 57 69 87
-0.902389 0.0266651 3.76052 19 24 27
-0.678948 -0.870977 3.35115 59 71 89
-0.999062 0.31016 3.86316 23 122 104
-0.946488 0.0492174 3.73253 92 100 107
-0.69146 -0.805061 3.37965 54 68 86
-0.502722 -1.22075 3.26261 210 207 203
-0.669191 -0.904339 3.32911 85 100 119
-0.93612 0.0495387 3.73474 67 69 77
-0.537469 -1.13635 3.28549 191 191 191
-0.490679 -1.22529 3.26504 201 197 196
-0.490679 -1.22529 3.26504 201 197 196
-0.531644 -1.14594 3.28271 206 204 203
-0.66922 -0.855879 3.35838 91 104 120
-0.595141 -1.05914 3.28624 184 190 213
-0.656178 -0.966716 3.296 121 135 154
-0.653486 -0.960434 3.30237 72 85 107
-0.653486 -0.960434 3.30237 72 85 107
-0.664231 -0.944827 3.30368 64 78 96
-0.66676 -0.916334 3.31894 90 104 123
-0.667383 -0.895576 3.33056 101 115 137
-0.568513 -1.08454 3.28798 200 203 207
-0.568513 -1.08454 3.28798 200 203 207
-0.908186 0.0408811 3.74119 11 16 19
-0.652358 -0.841977 3.37325 41 57 73
-0.664564 -0.889745 3.33139 135 150 169
-0.903826 0.0374424 3.74073 13 18 21
-0.517685 -1.14906 3.28002 211 212 210
-1.5642 0.733964 3.64492 117 128 148
-0.654672 -0.931582 3.30751 63 77 95
-0.902568 0.044508 3.74099 13 18 21
-0.654483 -0.915621 3.317 92 106 124
-0.659438 -0.885276 3.33256 120 135 154
-0.575363 -1.05879 3.28746 202 209 226
-0.653396 -0.880048 3.33839 127 142 161
-0.960335 0.202221 3.79198 17 149 126
-0.648965 -0.955954 3.29051 97 110 132
-0.524981 -1.1247 3.28211 214 216 216
-0.47195 -1.2178 3.265 211 212 210
-0.565631 -1.06273 3.28866 196 203 218
-0.63222 -0.971696 3.29182 91 105 124
-0.643992 -0.944354 3.29899 148 162 181
-0.561915 -1.06324 3.28649 212 219 234
-0.650779 -0.883671 3.3301 77 92 111
-0.608692 -1.00037 3.28786 129 143 162
-0.520119 -1.12606 3.27863 208 210 210
-0.648641 -0.126286 3.82491 40 50 57
-0.646773 -0.862018 3.34449 79 93 111
-0.526341 -1.11149 3.28071 231 233 233
-1.54495 0.733305 3.64145 78 89 111
-0.569697 -1.04284 3.28743 131 139 156
-0.518731 -1.11931 3.27927 253 255 255
-0.638039 -0.934444 3.30077 81 95 113
-0.62186 -0.969637 3.28924 198 212 231
-0.504281 -1.1389 3.27502 214 216 216
-0.637753 -0.915517 3.30979 48 62 80
-1.54797 0.73612 3.6354 179 189 213
-0.504066 -1.18361 3.2447 206 207 205
-0.528856 -1.09999 3.2758 250 253 251
1.03778 -1.8535 4.07023 126 139 137
-0.635896 -0.893566 3.31984 48 64 81
-0.633502 -0.914863 3.30641 100 114 132
-0.496155 -1.14779 3.26769 208 210 210
-0.936218 0.483158 3.96076 248 254 253
-0.453024 -1.21666 3.25444 46 45 47
-0.631073 -0.88893 3.32041 117 133 150
-0.626964 -0.895614 3.31604 69 85 102
-0.532644 -1.06942 3.27966 73 78 81
-0.532644 -1.06942 3.27966 73 78 81
-0.484476 -1.13707 3.27492 252 255 251
-0.810666 -0.781654 3.23845 67 78 92
-0.436432 -1.22664 3.25229 57 59 59
0.0924214 -1.46925 3.52265 237 243 242
-0.54437 -1.03291 3.28416 112 122 140
-0.467123 -1.15963 3.26451 252 254 254
-0.534147 -1.04671 3.28173 99 108 122
-0.605064 -0.237932 3.73725 18 20 20
-0.605064 -0.237932 3.73725 18 20 20
-0.531582 -1.03938 3.2823 195 203 220
-0.474473 -1.13439 3.26598 19 22 20
-0.611052 -0.882614 3.31534 58 74 91
-0.546564 -1.01185 3.2827 150 159 179
